ply
format ascii 1.0
element vertex 1010
property float x
property float y
property float z
property uchar red
property uchar green
property uchar blue
end_header
-43.0134277 138.0002289 127.3769684 161 192 221
-43.5706177 137.9628448 127.0274506 161 192 221
-44.1267090 137.9255371 126.6786194 161 192 221
-44.6816711 137.8882904 126.3304749 161 192 221
-45.2355652 137.8511200 125.9830627 161 192 221
-45.6643066 137.8295593 125.5955200 161 192 221
-46.0766907 137.8099976 125.2033081 162 192 221
-46.4885254 137.7904510 124.8115845 162 192 221
-46.8999634 137.7709351 124.4203796 162 192 221
-47.3106995 137.7514496 124.0296631 162 191 220
-47.7210388 137.7319794 123.6394348 162 191 220
-48.1307983 137.7125397 123.2496948 162 191 220
-48.5400391 137.6931305 122.8604584 162 191 220
-49.0802917 137.6571960 122.5163422 162 191 220
-49.7483521 137.6051025 122.2168121 163 191 220
-50.4146729 137.5531464 121.9180603 163 191 220
-51.0793762 137.5013123 121.6200714 163 191 220
-51.7422485 137.4496307 121.3227844 163 191 220
-52.3664246 137.4027557 121.0134583 164 190 220
-52.8740234 137.3705139 120.6648712 164 190 220
-53.3800964 137.3384399 120.3166351 164 190 220
-53.8852539 137.3063965 119.9690247 164 190 220
-54.3895569 137.2744141 119.6220093 164 190 220
-54.8730164 137.2450256 119.2685852 164 190 220
-55.3460999 137.2168884 118.9123383 165 190 220
-55.8185120 137.1887970 118.5566406 165 190 220
-56.2881470 137.1609955 118.2008057 165 190 220
-56.6811523 137.1428833 117.8183441 165 190 220
-57.0664978 137.1257019 117.4337463 165 190 220
-57.4502258 137.1087036 117.0491333 165 190 220
-57.8201294 137.0934143 116.6601105 165 189 219
-58.1896057 137.0781403 116.2714691 165 189 219
-58.5501709 137.0639801 115.8801117 165 189 219
-58.9037170 137.0506744 115.4867249 165 189 219
-59.2531738 137.0378723 115.0923309 166 189 219
-59.5907898 137.0265503 114.6940613 166 189 219
-59.9281311 137.0152283 114.2961273 166 189 219
-60.2511292 137.0057068 113.8933105 166 189 219
-60.5731506 136.9962921 113.4905701 166 189 219
-60.8878174 136.9877930 113.0854645 166 189 219
-61.1955566 136.9801636 112.6781616 166 189 219
-61.5031128 136.9725189 112.2711487 166 189 219
-61.8016968 136.9660187 111.8611145 166 189 219
-62.0963745 136.9599915 111.4499359 166 189 219
-62.3467407 136.9596252 111.0221863 166 189 219
-62.5908203 136.9600677 110.5922546 166 189 219
-62.8157349 136.9629517 110.1551361 166 189 219
-63.0405273 136.9658508 109.7181091 166 189 219
-63.2652588 136.9687500 109.2811737 166 189 219
-63.4898987 136.9716492 108.8444061 166 189 219
-63.7119141 136.9748688 108.4066925 166 189 219
-63.9184875 136.9800873 107.9630737 166 189 219
-64.1249695 136.9853058 107.5195007 166 189 219
-64.3314514 136.9905243 107.0760040 166 189 219
-64.4809570 137.0030823 106.6100769 166 189 219
-64.6251221 137.0163574 106.1419373 166 189 219
-64.7693176 137.0296326 105.6737213 166 189 219
-64.9135132 137.0429077 105.2054291 166 189 219
-65.0519104 137.0569458 104.7346802 166 189 219
-65.1754456 137.0729065 104.2578583 166 189 219
-65.2990723 137.0888672 103.7808990 166 189 219
-65.4226379 137.1048584 103.3037567 166 189 219
-65.3955078 137.1404114 102.7652435 166 189 219
-65.6241760 137.1427765 102.3303986 166 189 219
-65.9400635 137.1337738 101.9313202 166 189 219
-66.2556763 137.1248016 101.5325165 166 189 219
-66.5711365 137.1158142 101.1339874 166 189 219
-66.8863525 137.1068420 100.7357178 166 189 219
-67.2013245 137.0978851 100.3377380 166 189 219
-67.4668274 137.0953522 99.9195099 167 189 219
-67.6691895 137.1010437 99.4751740 167 189 219
-67.8716431 137.1067352 99.0309143 167 189 219
-68.0740662 137.1124268 98.5866852 167 189 219
-68.2764587 137.1181183 98.1424713 167 189 219
-68.4788208 137.1238098 97.6982880 167 189 219
-68.6811829 137.1294861 97.2541351 167 189 219
-68.8835449 137.1351776 96.8100128 167 189 219
-69.0858765 137.1408691 96.3659210 167 189 219
-69.2882080 137.1465607 95.9218292 167 189 219
-69.4905090 137.1522522 95.4777832 167 189 219
-69.6928406 137.1579285 95.0337677 167 189 219
-69.8951111 137.1636200 94.5897675 167 189 219
-70.0974121 137.1692963 94.1457977 167 189 219
-70.2996826 137.1749878 93.7018280 167 189 219
-70.5019531 137.1806641 93.2578735 167 189 219
-70.7042236 137.1863556 92.8139648 167 189 219
-70.9053650 137.1921997 92.3695526 167 189 219
-71.1054993 137.1981506 91.9246979 167 189 219
-71.3055725 137.2041321 91.4798737 167 189 219
-71.5057068 137.2100830 91.0350494 167 189 219
-71.7058105 137.2160645 90.5902252 167 189 219
-71.9059143 137.2220306 90.1453857 167 189 219
-72.1059570 137.2279968 89.7005768 167 189 219
-72.3060608 137.2339783 89.2557526 167 189 219
-72.5061646 137.2399292 88.8109436 167 189 219
-72.7062683 137.2458954 88.3661194 167 189 219
-72.9063416 137.2518616 87.9212952 167 189 219
-73.1064453 137.2578430 87.4764709 167 189 219
-73.3065186 137.2638092 87.0316315 167 189 219
-73.5066833 137.2697754 86.5868073 167 189 219
-73.7067566 137.2757416 86.1419525 167 189 219
-73.9068909 137.2817078 85.6971130 167 189 219
-74.1070251 137.2876740 85.2522736 167 189 219
-74.3070984 137.2936401 84.8073730 167 189 219
-74.5072327 137.2996216 84.3624725 167 189 219
-74.7073669 137.3055725 83.9175873 167 189 219
-74.8453369 137.3198547 83.4435272 167 189 219
-74.9662170 137.3364258 82.9612579 166 189 219
-75.0871277 137.3530273 82.4787292 166 189 219
-75.2080994 137.3696136 81.9959869 166 189 219
-75.3291626 137.3862305 81.5129852 166 189 219
-75.4502869 137.4028320 81.0298004 166 189 219
-75.5714111 137.4194489 80.5463562 166 189 219
-75.6925964 137.4360809 80.0626678 166 189 219
-75.8138733 137.4527130 79.5787811 166 189 219
-75.9352417 137.4693604 79.0946350 166 189 219
-76.0565796 137.4860077 78.6102448 166 189 219
-76.1780701 137.5026703 78.1256256 166 189 219
-76.2995605 137.5193329 77.6407471 166 189 219
-76.4211426 137.5360107 77.1556549 166 189 219
-76.5427551 137.5527039 76.6702881 166 189 219
-76.6644592 137.5693970 76.1846924 166 189 219
-76.7861938 137.5860901 75.6988525 166 189 219
-76.9080505 137.6027985 75.2127533 166 189 219
-77.0265808 137.6199646 74.7247620 166 189 219
-77.1440125 137.6373138 74.2359161 166 189 219
-77.2615356 137.6546631 73.7468109 166 189 219
-77.3790894 137.6720123 73.2574158 166 189 219
-77.4967346 137.6893768 72.7677917 166 189 219
-77.6144409 137.7067566 72.2778778 165 189 219
-77.7322083 137.7241364 71.7876740 165 189 219
-77.8500366 137.7415314 71.2972260 165 189 219
-77.9678955 137.7589417 70.8064575 165 189 219
-78.0859375 137.7763519 70.3154297 165 189 219
-78.2039185 137.7937775 69.8241119 165 190 220
-78.3220520 137.8112183 69.3325195 165 190 220
-78.4401855 137.8286591 68.8406677 165 190 220
-78.5584412 137.8461151 68.3485260 165 190 220
-78.6766968 137.8635864 67.8560638 165 190 220
-78.7951050 137.8810577 67.3633423 165 190 220
-78.9135437 137.8985443 66.8703156 165 190 220
-79.0320740 137.9160461 66.3770142 165 190 220
-79.1506653 137.9335480 65.8834076 165 190 220
-79.2595520 137.9524078 65.3843842 165 190 220
-79.2592163 137.9862518 64.8276520 165 190 220
-79.2589417 138.0201416 64.2702484 164 190 220
-79.2586365 138.0540771 63.7120819 164 190 220
-79.2583313 138.0880585 63.1532440 164 190 220
-79.2580566 138.1220703 62.5937500 164 190 220
-79.2577515 138.1561279 62.0334930 164 190 220
-79.2574768 138.1902313 61.4725342 164 190 220
-79.2571411 138.2243958 60.9108276 164 190 220
-79.2568665 138.2585754 60.3484497 164 190 220
-79.2565308 138.2928162 59.7852936 164 190 220
-79.2562561 138.3271027 59.2214661 163 191 220
-79.2559509 138.3614197 58.6568756 163 191 220
-79.2556763 138.3957825 58.0915680 163 191 220
-79.2553406 138.4302063 57.5254974 163 191 220
-79.2550354 138.4646606 56.9587402 163 191 220
-79.2547607 138.4991760 56.3912201 163 191 220
-79.2544556 138.5337219 55.8229370 163 191 220
-79.2541504 138.5683136 55.2539520 163 191 220
-79.2538452 138.6029663 54.6841431 162 191 220
-79.2535400 138.6376495 54.1136322 162 191 220
-79.2532349 138.6723785 53.5423584 162 191 220
-79.2529297 138.7071533 52.9703369 162 191 220
-79.2525940 138.7419891 52.3975220 162 191 220
-79.2523193 138.7768555 51.8239746 162 191 220
-79.2520142 138.8117676 51.2496490 162 192 221
-79.2520752 138.8466797 50.6747437 162 192 221
-79.2522278 138.8816376 50.0991058 161 192 221
-79.2523499 138.9166260 49.5227051 161 192 221
-79.2525330 138.9516754 48.9455414 161 192 221
-79.2526855 138.9867706 48.3675690 161 192 221
-79.2528381 139.0219116 47.7888184 161 192 221
-79.2530212 139.0570831 47.2092896 161 192 221
-79.2531433 139.0923309 46.6289368 161 192 221
-79.2532959 139.1276093 46.0478363 161 192 221
-79.2534485 139.1629486 45.4658661 160 192 221
-79.2536011 139.1983185 44.8831635 160 192 221
-79.2537537 139.2337494 44.2995911 160 192 221
-79.2539368 139.2692261 43.7152863 160 193 221
-79.2540894 139.3047485 43.1301422 160 193 221
-79.2542419 139.3403320 42.5441437 160 193 221
-79.2543945 139.3759613 41.9573517 160 193 221
-79.2545166 139.4116364 41.3697205 159 193 221
-79.2546997 139.4473572 40.7812653 159 193 221
-79.2548523 139.4831390 40.1920166 159 193 221
-79.2548828 139.5189819 39.6018066 159 193 221
-79.1358948 139.5717163 38.9398956 159 193 221
-79.0166016 139.6245575 38.2765350 159 193 221
-78.8970337 139.6775208 37.6118317 158 193 221
-78.7772827 139.7305756 36.9457245 158 194 222
-78.6572571 139.7837524 36.2782288 158 194 222
-78.5369263 139.8370361 35.6092987 158 194 222
-78.4164429 139.8904266 34.9390564 158 194 222
-78.2955933 139.9439545 34.2672882 157 194 222
-78.1745605 139.9975739 33.5941772 157 194 222
-78.0533142 140.0513000 32.9196625 157 194 222
-77.9317322 140.1051483 32.2436371 157 194 222
-77.8099060 140.1591187 31.5662079 157 194 222
-77.6878662 140.2131958 30.8873596 156 195 222
-77.5654907 140.2673950 30.2070465 156 195 222
-77.4429016 140.3217010 29.5252838 156 195 222
-77.3200378 140.3761292 28.8420105 156 195 222
-77.1969299 140.4306641 28.1573486 156 195 222
-77.0735168 140.4853363 27.4711609 155 195 222
-76.9498596 140.5401154 26.7834930 155 195 222
-76.8259583 140.5950012 26.0943298 155 195 222
-76.7017517 140.6500244 25.4036865 155 196 223
-76.5658569 140.7068176 24.7042999 155 196 223
-76.4294434 140.7637482 24.0032349 154 196 223
-76.2927246 140.8208008 23.3005981 154 196 223
-76.1557007 140.8780060 22.5963593 154 196 223
-76.0183411 140.9353333 21.8905334 154 196 223
-75.8806763 140.9927826 21.1831055 153 196 223
-75.7427063 141.0503693 20.4740753 153 196 223
-75.6044006 141.1080933 19.7633667 153 197 223
-75.4657898 141.1659393 19.0511169 153 197 223
-75.3269043 141.2239075 18.3372040 153 197 223
-75.1876831 141.2820282 17.6216888 152 197 223
-74.9432373 141.3554382 16.8364258 152 197 223
-74.6003113 141.4432068 15.9853210 152 197 223
-74.2561951 141.5312958 15.1312866 151 198 224
-73.9108887 141.6196899 14.2743530 151 198 224
-73.5643616 141.7083740 13.4144135 151 198 224
-73.2167358 141.7973633 12.5516357 150 198 224
-72.8678894 141.8866425 11.6858368 150 198 224
-72.5177612 141.9762573 10.8169861 150 199 224
-72.1664734 142.0661774 9.9451294 149 199 224
-71.8139343 142.1564026 9.0702820 149 199 224
-71.4602356 142.2469482 8.1924286 149 199 224
-71.1052856 142.3377991 7.3114624 148 199 224
-70.7490540 142.4289856 6.4273682 148 200 225
-70.3915710 142.5204773 5.5402222 148 200 225
-70.0328369 142.6123047 4.6499176 147 200 225
-69.6728516 142.7044373 3.7565308 147 200 225
-69.3115540 142.7969055 2.8599243 146 200 225
-68.9506226 142.8894806 1.9612274 146 201 225
-68.5909119 142.9819946 1.0610962 146 201 225
-68.2300110 143.0748291 0.1578064 145 201 225
-67.8677979 143.1679993 -0.7486877 145 201 225
-67.5042419 143.2615051 -1.6584473 145 201 225
-67.1394653 143.3553467 -2.5714417 144 202 226
-66.3497009 143.5118103 -3.7794189 144 202 226
-65.4533386 143.6842041 -5.0647888 143 202 226
-64.5512390 143.8576813 -6.3583984 142 203 226
-63.6432190 144.0323029 -7.6604614 142 203 226
-62.7294922 144.2080231 -8.9707336 141 204 227
-61.8097534 144.3849182 -10.2896729 140 204 227
-60.8839722 144.5629425 -11.6171570 140 204 227
-59.9522400 144.7421265 -12.9532471 139 205 227
-59.0143738 144.9225006 -14.2981567 138 205 227
-58.0889587 145.1012878 -15.6387329 138 206 228
-57.1725769 145.2790070 -16.9773865 137 206 228
-54.5779419 145.7057495 -19.5087891 135 207 228
-51.7923889 146.1614380 -22.1861572 134 208 229
-48.9618530 146.6244965 -24.9067078 132 209 229
-46.0855408 147.0950317 -27.6712952 130 210 230
15.2153625 156.8064880 135.4373474 136 207 228
9.9345703 156.0587158 136.2504883 138 205 227
4.7131653 155.3188934 137.0608826 140 204 227
-0.2079468 154.6231689 137.8038330 143 203 226
-1.8604126 154.4176331 137.6794434 143 202 226
-3.5016174 154.2134705 137.5558777 144 202 226
-5.1455994 154.0086365 137.4368896 145 201 225
-6.8056335 153.8010864 137.3261414 146 201 225
-8.4542847 153.5949402 137.2161560 146 201 225
-10.0916138 153.3902283 137.1069183 147 200 225
-11.7178345 153.1869049 136.9984436 148 200 225
-13.3329163 152.9849701 136.8906860 148 199 224
-14.9371338 152.7843933 136.7836609 149 199 224
-16.3353577 152.6146698 136.6225891 150 199 224
-17.2561951 152.5168762 136.3301697 150 198 224
-18.1737671 152.4194336 136.0388184 150 198 224
-19.0879211 152.3223419 135.7485046 151 198 224
-19.9972229 152.2258606 135.4587555 151 198 224
-20.9029541 152.1297607 135.1699829 151 198 224
-21.8054504 152.0339966 134.8822327 152 197 223
-22.7046814 151.9385986 134.5954895 152 197 223
-23.6007690 151.8435059 134.3097839 152 197 223
-24.4936218 151.7487793 134.0250854 153 197 223
-25.3833923 151.6543732 133.7413940 153 197 223
-26.2699890 151.5603027 133.4587097 153 196 223
-27.1535034 151.4665527 133.1770325 154 196 223
-28.0338135 151.3731689 132.8963013 154 196 223
-28.9111328 151.2800751 132.6166077 154 196 223
-29.7853699 151.1873169 132.3378296 155 196 223
-30.6565857 151.0948792 132.0600891 155 195 222
-31.3354492 151.0316925 131.7259521 155 195 222
-31.9370728 150.9802094 131.3697662 156 195 222
-32.5373840 150.9288177 131.0143433 156 195 222
-33.1354980 150.8776855 130.6594086 156 195 222
-33.7312927 150.8268127 130.3049469 156 195 222
-34.3258057 150.7760620 129.9512329 156 195 222
-34.9190369 150.7254333 129.5982971 157 194 222
-35.5110168 150.6748962 129.2461090 157 194 222
-36.1016846 150.6244507 128.8946991 157 194 222
-36.6911621 150.5741272 128.5440063 157 194 222
-37.2792664 150.5239258 128.1940613 157 194 222
-37.8661804 150.4738159 127.8448639 158 194 222
-38.4518738 150.4238281 127.4964294 158 194 222
-39.0363464 150.3739319 127.1487274 158 194 222
-39.6195374 150.3241272 126.8017731 158 194 222
-40.2014771 150.2744446 126.4555054 158 193 221
-40.7821960 150.2248840 126.1099854 159 193 221
-41.3617554 150.1753998 125.7651978 159 193 221
-41.9400940 150.1260223 125.4211121 159 193 221
-42.5171814 150.0767517 125.0777740 159 193 221
-43.0931091 150.0275879 124.7351227 159 193 221
-43.6678772 149.9785156 124.3932190 160 193 221
-44.2413330 149.9295654 124.0519867 160 193 221
-44.7663269 149.8880463 123.6956940 160 193 221
-45.1850281 149.8629456 123.3048859 160 192 221
-45.6031494 149.8378754 122.9145508 160 192 221
-46.0209656 149.8128052 122.5247955 160 192 221
-46.4381714 149.7877808 122.1355286 161 192 221
-46.8549194 149.7627716 121.7467651 161 192 221
-47.2711182 149.7377930 121.3585205 161 192 221
-47.6867371 149.7128601 120.9707489 161 192 221
-48.5109863 149.6241913 120.7240448 161 192 221
-49.2128601 149.5544891 120.4368591 161 192 221
-49.9127502 149.4849701 120.1504669 162 192 221
-50.6108093 149.4156494 119.8648682 162 191 220
-51.3069458 149.3465118 119.5800018 162 191 220
-51.9087524 149.2920074 119.2635345 162 191 220
-52.4306030 149.2499237 118.9201508 163 191 220
-52.9417114 149.2094574 118.5739288 163 191 220
-53.4518738 149.1690674 118.2283020 163 191 220
-53.9611206 149.1287537 117.8832550 163 191 220
-54.4695740 149.0884857 117.5388641 163 191 220
-54.9522705 149.0522003 117.1861725 163 191 220
-55.4051208 149.0205383 116.8235931 164 190 220
-55.8013306 148.9977112 116.4413300 164 190 220
-56.1907349 148.9759064 116.0572205 164 190 220
-56.5710449 148.9554901 115.6704102 164 190 220
-56.9508972 148.9351044 115.2839966 164 190 220
-57.3177185 148.9167328 114.8934021 164 190 220
-57.6805725 148.8989410 114.5018463 164 190 220
-58.0351868 148.8824158 114.1078186 164 190 220
-58.3807068 148.8672791 113.7108765 164 190 220
-58.7215271 148.8528595 113.3126678 164 190 220
-59.0500183 148.8403473 112.9103546 164 190 220
-59.3782959 148.8278503 112.5083466 165 190 220
-59.6911316 148.8177490 112.1009827 165 190 220
-60.0035706 148.8076782 111.6938477 165 190 220
-60.3101501 148.7985229 111.2848663 165 190 220
-60.6082458 148.7906799 110.8730469 165 190 220
-60.9061890 148.7828369 110.4614868 165 190 220
-61.2009888 148.7754517 110.0490723 165 190 220
-61.4212036 148.7799072 109.6083069 165 190 220
-61.6413574 148.7843628 109.1676788 165 190 220
-61.8614807 148.7888184 108.7271271 165 190 220
-62.0815125 148.7932739 108.2867126 165 190 220
-62.2965698 148.7985077 107.8444214 165 190 220
-62.4977112 148.8059692 107.3968201 165 190 220
-62.6989136 148.8134003 106.9492950 165 190 220
-62.8999939 148.8208466 106.5017853 165 190 220
-63.1011047 148.8282776 106.0543671 165 190 220
-63.2267456 148.8477783 105.5770416 165 190 220
-63.3518372 148.8673859 105.0993652 165 190 220
-63.4769287 148.8869934 104.6215668 165 190 220
-63.6020813 148.9065857 104.1436157 165 190 220
-63.7272644 148.9262085 103.6655121 165 190 220
-63.8396301 148.9478912 103.1820984 165 190 220
-63.9483337 148.9701691 102.6969910 165 190 220
-64.0572510 148.9924469 102.2117462 165 190 220
-64.3489075 148.9853668 101.8008118 165 190 220
-64.6404419 148.9783020 101.3900757 165 190 220
-64.9318542 148.9712219 100.9795990 165 190 220
-65.2230835 148.9641418 100.5693359 165 190 220
-65.5141602 148.9570923 100.1592865 165 190 220
-65.8050842 148.9500122 99.7495117 165 190 220
-66.0958252 148.9429626 99.3399048 165 190 220
-66.3864136 148.9359131 98.9305573 165 190 220
-66.6576538 148.9319458 98.5133820 165 189 219
-66.8590393 148.9392853 98.0670776 165 189 219
-67.0603943 148.9465942 97.6208038 165 189 219
-67.2617798 148.9539185 97.1745758 165 189 219
-67.4631653 148.9612274 96.7283630 165 189 219
-67.6645508 148.9685364 96.2822113 165 189 219
-67.8659363 148.9758453 95.8360596 165 189 219
-68.0672607 148.9831543 95.3899231 165 189 219
-68.2686157 148.9904480 94.9438324 165 189 219
-68.4699707 148.9977722 94.4977417 165 189 219
-68.6712952 149.0050812 94.0516815 165 189 219
-68.8726501 149.0123901 93.6056213 165 189 219
-69.0739441 149.0196991 93.1595917 165 189 219
-69.2752686 149.0270081 92.7135620 165 189 219
-69.4765930 149.0343170 92.2675629 165 189 219
-69.6778564 149.0416260 91.8215485 165 189 219
-69.8791504 149.0489197 91.3755646 165 189 219
-70.0804443 149.0562439 90.9295807 165 189 219
-70.2817383 149.0635376 90.4836273 165 189 219
-70.4830017 149.0708618 90.0376434 165 189 219
-70.6842957 149.0781555 89.5916901 165 189 219
-70.8855896 149.0854645 89.1457367 165 189 219
-71.0868530 149.0927734 88.6997833 165 189 219
-71.2881470 149.1000824 88.2538452 165 189 219
-71.4894104 149.1073914 87.8078613 165 189 219
-71.6907043 149.1147003 87.3619385 165 189 219
-71.8919983 149.1220093 86.9159851 165 189 219
-72.0932617 149.1293030 86.4700317 165 189 219
-72.2945557 149.1366119 86.0240784 165 189 219
-72.4958191 149.1439209 85.5780945 165 189 219
-72.6971130 149.1512299 85.1321106 165 189 219
-72.8984070 149.1585388 84.6861420 165 189 219
-73.0997009 149.1658478 84.2401428 165 189 219
-73.3009949 149.1731567 83.7941132 165 189 219
-73.5023193 149.1804657 83.3480988 165 189 219
-73.7036438 149.1877747 82.9020844 165 189 219
-73.8794861 149.1992798 82.4440460 165 189 219
-73.9993896 149.2200623 81.9595490 165 190 220
-74.1186829 149.2409821 81.4745026 165 190 220
-74.2354431 149.2623291 80.9879761 165 190 220
-74.3521729 149.2836914 80.5011902 165 190 220
-74.4690857 149.3050537 80.0141907 165 190 220
-74.5859680 149.3264313 79.5269165 165 190 220
-74.7029419 149.3478241 79.0394135 165 190 220
-74.8199768 149.3692322 78.5516357 165 190 220
-74.9371033 149.3906250 78.0636444 165 190 220
-75.0542908 149.4120483 77.5753937 165 190 220
-75.1714783 149.4334869 77.0868378 165 190 220
-75.2887268 149.4549408 76.5980530 165 190 220
-75.4060669 149.4763947 76.1090240 165 190 220
-75.5234985 149.4978638 75.6197357 165 190 220
-75.6409912 149.5193481 75.1301727 165 190 220
-75.7584839 149.5408325 74.6403351 164 190 220
-75.8760986 149.5623474 74.1502533 164 190 220
-75.9937439 149.5838623 73.6599121 164 190 220
-76.1114502 149.6053772 73.1692657 164 190 220
-76.2292480 149.6269226 72.6783600 164 190 220
-76.3470764 149.6484680 72.1871796 164 190 220
-76.4650269 149.6700287 71.6957703 164 190 220
-76.5829773 149.6916046 71.2040405 164 190 220
-76.7010803 149.7131958 70.7120667 164 190 220
-76.8191833 149.7348022 70.2197876 164 190 220
-76.9373779 149.7564087 69.7272491 164 190 220
-77.0556030 149.7780304 69.2344055 164 190 220
-77.1739502 149.7996521 68.7412872 164 190 220
-77.2922974 149.8213196 68.2478790 164 190 220
-77.4107666 149.8429718 67.7541962 164 190 220
-77.5292969 149.8646545 67.2602234 164 190 220
-77.6479187 149.8863220 66.7659760 164 190 220
-77.7665405 149.9080353 66.2714081 164 190 220
-77.8852844 149.9297485 65.7765503 164 190 220
-78.0040894 149.9514771 65.2814178 163 191 220
-78.1088562 149.9755859 64.7785950 163 191 220
-78.1009827 150.0188446 64.2162323 163 191 220
-78.0930786 150.0621490 63.6531219 163 191 220
-78.0852356 150.1054993 63.0893097 163 191 220
-78.0773315 150.1489105 62.5247345 163 191 220
-78.0693970 150.1923828 61.9594116 163 191 220
-78.0589294 150.2363434 61.3920288 163 191 220
-78.0483093 150.2803955 60.8237915 163 191 220
-78.0376892 150.3244934 60.2548065 162 191 220
-78.0270386 150.3686523 59.6850586 162 191 220
-78.0163879 150.4128723 59.1145477 162 191 220
-78.0056763 150.4571533 58.5432587 162 191 220
-77.9949951 150.5014954 57.9712219 162 191 220
-77.9842529 150.5458984 57.3983765 162 191 220
-77.9735413 150.5903625 56.8247681 162 192 221
-77.9627991 150.6348724 56.2504120 162 192 221
-77.9520264 150.6794586 55.6752319 161 192 221
-77.9412537 150.7241058 55.0992584 161 192 221
-77.9304810 150.7687988 54.5225220 161 192 221
-77.9196777 150.8135681 53.9449768 161 192 221
-77.9088745 150.8583984 53.3666382 161 192 221
-77.8980408 150.9032898 52.7874908 161 192 221
-77.8872070 150.9482269 52.2075806 161 192 221
-77.8763428 150.9932404 51.6268616 160 192 221
-77.8654480 151.0383301 51.0452728 160 192 221
-77.8545837 151.0834656 50.4628906 160 192 221
-77.8437195 151.1286621 49.8797455 160 192 221
-77.8327637 151.1739197 49.2957153 160 193 221
-77.8218079 151.2192535 48.7108917 160 193 221
-77.8108826 151.2646484 48.1252289 160 193 221
-77.7998962 151.3101196 47.5387421 160 193 221
-77.7889404 151.3556213 46.9514465 159 193 221
-77.7779541 151.4012146 46.3632812 159 193 221
-77.7669067 151.4468689 45.7742615 159 193 221
-77.7558594 151.4925995 45.1844330 159 193 221
-77.7448120 151.5383759 44.5937195 159 193 221
-77.7337952 151.5842285 44.0021973 159 193 221
-77.7227173 151.6301422 43.4098053 159 193 221
-77.7116089 151.6761169 42.8165588 158 193 221
-77.7005310 151.7221680 42.2224731 158 194 222
-77.6893616 151.7682953 41.6274567 158 194 222
-77.6782227 151.8144836 41.0316010 158 194 222
-77.6670837 151.8607178 40.4349060 158 194 222
-77.6558838 151.9070435 39.8372803 158 194 222
-77.6447144 151.9534302 39.2388153 158 194 222
-77.6188354 152.0024567 38.6307373 157 194 222
-77.4839478 152.0705872 37.9567871 157 194 222
-77.3487854 152.1388855 37.2813873 157 194 222
-77.2133179 152.2073059 36.6045380 157 194 222
-77.0775757 152.2758942 35.9262238 157 195 222
-76.9414978 152.3446350 35.2463684 156 195 222
-76.8051758 152.4134979 34.5651245 156 195 222
-76.6685486 152.4825439 33.8823547 156 195 222
-76.5302734 152.5519409 33.1972809 156 195 222
-76.3906250 152.6217041 32.5100555 156 195 222
-76.2506409 152.6916199 31.8212738 155 195 222
-76.1103821 152.7616882 31.1309814 155 195 222
-75.9698181 152.8319092 30.4391785 155 195 222
-75.8288879 152.9022827 29.7457733 155 196 223
-75.6877136 152.9728088 29.0508881 154 196 223
-75.5461426 153.0435181 28.3544006 154 196 223
-75.4042969 153.1143799 27.6563568 154 196 223
-75.2621765 153.1853790 26.9567566 154 196 223
-75.1196899 153.2565460 26.2556000 154 196 223
-74.9768982 153.3278809 25.5528259 153 196 223
-74.8337402 153.3993835 24.8484192 153 197 223
-74.6903381 153.4710388 24.1425018 153 197 223
-74.5465393 153.5428467 23.4349060 153 197 223
-74.4023743 153.6148529 22.7256775 153 197 223
-74.2579651 153.6869965 22.0148468 152 197 223
-74.1131897 153.7593079 21.3024445 152 197 223
-73.9680786 153.8317871 20.5883331 152 197 223
-73.8226318 153.9044342 19.8726044 152 197 223
-73.6768799 153.9772644 19.1552277 151 198 224
-73.5307617 154.0502319 18.4361725 151 198 224
-73.3843079 154.1233978 17.7154541 151 198 224
-73.2375183 154.1967163 16.9930725 151 198 224
-73.0107117 154.2844543 16.2174377 150 198 224
-72.6331787 154.3992462 15.3422394 150 198 224
-72.2542725 154.5144653 14.4639587 150 199 224
-71.8739624 154.6300964 13.5824738 149 199 224
-71.4923401 154.7461243 12.6978607 149 199 224
-71.1093445 154.8626099 11.8099976 149 199 224
-70.7248840 154.9794922 10.9189148 148 199 224
-70.3390808 155.0968018 10.0245972 148 200 225
-69.9506226 155.2147675 9.1262207 147 200 225
-69.5574951 155.3337555 8.2223816 147 200 225
-69.1629333 155.4531708 7.3152313 147 200 225
-68.7669678 155.5730133 6.4048004 146 200 225
-68.3694763 155.6933136 5.4909210 146 201 225
-67.9704895 155.8140564 4.5736389 146 201 225
-67.5700378 155.9352722 3.6529388 145 201 225
-67.1681213 156.0569153 2.7288361 145 201 225
-66.7646790 156.1790161 1.8012695 144 202 226
-66.3597107 156.3015747 0.8702087 144 202 226
-65.9532776 156.4245911 -0.0643005 144 202 226
-65.5452271 156.5480957 -1.0024109 143 202 226
-65.1356506 156.6720428 -1.9440613 143 203 226
-64.7245483 156.7964783 -2.8892517 143 203 226
-63.8457336 157.0059509 -4.1573486 142 203 226
-62.8164062 157.2430878 -5.5329895 141 204 227
-61.7798767 157.4818726 -6.9182739 140 204 227
-60.7359924 157.7223816 -8.3133850 140 204 227
-59.6846313 157.9645996 -9.7185059 139 205 227
-58.6382751 158.2062378 -11.1249695 138 205 227
-57.5870361 158.4491577 -12.5396118 137 206 228
-56.5283203 158.6938019 -13.9643860 137 206 228
-55.4620667 158.9401855 -15.3993225 136 207 228
-54.1102600 159.2391052 -17.0393372 135 207 228
-50.7210999 159.9108887 -20.1168213 133 208 229
-47.2666321 160.5956116 -23.2536011 131 210 230
-43.7055054 161.3008575 -26.4791565 129 211 230
13.4413757 170.2456970 130.6032104 135 207 228
4.8703003 168.7567596 132.3872681 139 205 227
-0.7604980 167.7950745 133.3751526 142 203 226
-2.5833740 167.5179291 133.3132324 142 203 226
-4.3925476 167.2428589 133.2517548 143 202 226
-6.0542603 166.9940186 133.1529541 144 202 226
-7.6673889 166.7535706 133.0443115 144 202 226
-9.2697144 166.5147552 132.9363708 145 201 225
-10.8614807 166.2774963 132.8291779 146 201 225
-12.4427795 166.0418091 132.7226868 147 200 225
-14.0251465 165.8055725 132.6202087 147 200 225
-15.2395020 165.6356506 132.4148254 148 200 225
-16.1645508 165.5178680 132.1280060 148 200 225
-17.0862427 165.4005432 131.8421936 148 199 224
-18.0046082 165.2835999 131.5574188 149 199 224
-18.9196472 165.1671143 131.2736664 149 199 224
-19.8314819 165.0510254 130.9909363 149 199 224
-20.7399902 164.9353333 130.7091980 150 198 224
-21.6452637 164.8200989 130.4284668 150 198 224
-22.5474243 164.7052307 130.1487427 151 198 224
-23.4462585 164.5907898 129.8700104 151 198 224
-24.3419495 164.4767609 129.5922394 151 198 224
-25.2345886 164.3630981 129.3154907 152 197 223
-26.1239319 164.2498779 129.0396729 152 197 223
-27.0095825 164.1371765 128.7646179 152 197 223
-27.8908997 164.0250549 128.4901581 153 197 223
-28.7691345 163.9133606 128.2166443 153 197 223
-29.4558716 163.8365021 127.8855743 153 197 223
-30.0619812 163.7742615 127.5307465 153 196 223
-30.6668091 163.7121735 127.1767120 154 196 223
-31.2703552 163.6502075 126.8234100 154 196 223
-31.8725586 163.5883789 126.4709015 154 196 223
-32.4734802 163.5266876 126.1191559 154 196 223
-33.0731506 163.4651184 125.7681580 154 196 223
-33.6714478 163.4036865 125.4179077 155 196 223
-34.2684937 163.3423920 125.0684204 155 196 223
-34.8642273 163.2812195 124.7196808 155 195 222
-35.4587708 163.2201843 124.3716736 155 195 222
-36.0520020 163.1592865 124.0243988 156 195 222
-36.6440125 163.0985107 123.6778717 156 195 222
-37.2347107 163.0378418 123.3320770 156 195 222
-37.8241882 162.9773254 122.9870148 156 195 222
-38.4124146 162.9169464 122.6426544 156 195 222
-38.9994812 162.8566589 122.2990723 157 195 222
-39.5838623 162.7967834 121.9557037 157 194 222
-40.1665649 162.7371063 121.6129150 157 194 222
-40.7480469 162.6775513 121.2708130 157 194 222
-41.3282776 162.6181335 120.9294281 157 194 222
-41.9073792 162.5588379 120.5887604 158 194 222
-42.4362488 162.5087585 120.2321472 158 194 222
-42.8585815 162.4783478 119.8401794 158 194 222
-43.2804260 162.4479675 119.4487457 158 194 222
-43.7016602 162.4176483 119.0578003 158 194 222
-44.1224365 162.3873596 118.6673737 158 194 222
-44.5426331 162.3571167 118.2774200 158 194 222
-44.9623108 162.3269043 117.8879852 158 193 221
-45.3814392 162.2967224 117.4990234 159 193 221
-45.8000488 162.2665863 117.1105347 159 193 221
-46.2181702 162.2364807 116.7225800 159 193 221
-46.6356812 162.2064209 116.3350983 159 193 221
-47.0526733 162.1764069 115.9480743 159 193 221
-47.4692078 162.1464233 115.5615540 159 193 221
-47.8852234 162.1164703 115.1755371 159 193 221
-48.3006592 162.0865631 114.7899780 159 193 221
-48.7156372 162.0566864 114.4049072 159 193 221
-49.1300964 162.0268555 114.0202942 160 193 221
-49.5440369 161.9970398 113.6361542 160 193 221
-49.9575195 161.9672852 113.2525177 160 193 221
-50.3704224 161.9375610 112.8693085 160 193 221
-50.7828674 161.9078522 112.4866028 160 193 221
-51.1950073 161.8781586 112.1044312 160 192 221
-51.6065674 161.8485107 111.7226868 160 192 221
-52.0176697 161.8189087 111.3414154 160 192 221
-52.4282837 161.7893066 110.9606018 161 192 221
-52.8383484 161.7597656 110.5802612 161 192 221
-53.2479553 161.7302856 110.2003479 161 192 221
-53.6570740 161.7008057 109.8209381 161 192 221
-54.0377808 161.6766357 109.4314117 161 192 221
-54.3357544 161.6680603 109.0111084 161 192 221
-54.6335144 161.6594849 108.5910950 161 192 221
-54.9310913 161.6509247 108.1713104 161 192 221
-55.2284851 161.6423645 107.7518005 161 192 221
-55.5256958 161.6338043 107.3325348 161 192 221
-55.8226929 161.6252747 106.9135284 161 192 221
-56.1195984 161.6167145 106.4947815 161 192 221
-56.4162903 161.6081848 106.0762939 161 192 221
-56.7127686 161.5996399 105.6580505 161 192 221
-57.0090637 161.5911255 105.2400513 162 192 221
-57.3052063 161.5825958 104.8222961 162 192 221
-57.6012268 161.5740662 104.4048157 162 192 221
-57.8969727 161.5655518 103.9875641 162 192 221
-58.1925964 161.5570679 103.5705414 162 192 221
-58.4880371 161.5485535 103.1537628 162 192 221
-58.7833252 161.5400696 102.7372589 162 191 220
-59.0784302 161.5315704 102.3209686 162 191 220
-59.3733826 161.5230713 101.9049225 162 191 220
-59.6681824 161.5145874 101.4891205 162 191 220
-59.9627686 161.5061035 101.0735626 162 191 220
-60.2571716 161.4976501 100.6582031 162 191 220
-60.5515442 161.4891663 100.2431488 162 191 220
-60.8463745 161.4805450 99.8285675 162 191 220
-61.1410522 161.4719543 99.4142456 162 191 220
-61.4355774 161.4633484 99.0001221 162 191 220
-61.7299500 161.4547577 98.5862427 162 191 220
-62.0241394 161.4461670 98.1726074 162 191 220
-62.3182068 161.4375916 97.7591858 162 191 220
-62.6120605 161.4290009 97.3459778 163 191 220
-62.9057922 161.4204254 96.9330139 163 191 220
-63.1994019 161.4118652 96.5202789 163 191 220
-63.4869690 161.4044189 96.1053009 163 191 220
-63.6897583 161.4132996 95.6547089 163 191 220
-63.8925476 161.4222107 95.2041626 163 191 220
-64.0953064 161.4310913 94.7536316 163 191 220
-64.2980042 161.4399872 94.3031311 163 191 220
-64.5007629 161.4488831 93.8526306 163 191 220
-64.7034607 161.4577789 93.4021606 163 191 220
-64.9061584 161.4666748 92.9516754 163 191 220
-65.1088562 161.4755859 92.5012665 163 191 220
-65.3115845 161.4844666 92.0508270 163 191 220
-65.5142517 161.4933624 91.6004333 163 191 220
-65.7169495 161.5022583 91.1500244 163 191 220
-65.9196777 161.5111389 90.6996765 163 191 220
-66.1223755 161.5200348 90.2492981 163 191 220
-66.3250122 161.5289307 89.7989197 163 191 220
-66.5276794 161.5378265 89.3485718 163 191 220
-66.7303467 161.5467224 88.8982239 163 191 220
-66.9330139 161.5556030 88.4478912 163 191 220
-67.1356812 161.5644989 87.9975433 163 191 220
-67.3383179 161.5733948 87.5472107 163 191 220
-67.5409851 161.5822906 87.0968781 163 191 220
-67.7436523 161.5911865 86.6465454 163 191 220
-67.9463501 161.6000671 86.1962128 163 191 220
-68.1489868 161.6089630 85.7458801 163 191 220
-68.3516235 161.6178589 85.2955322 163 191 220
-68.5543518 161.6267395 84.8452148 163 191 220
-68.7570801 161.6356201 84.3948975 163 191 220
-68.9598694 161.6444855 83.9445801 163 191 220
-69.1625977 161.6533813 83.4942474 163 191 220
-69.3653564 161.6622467 83.0439148 163 191 220
-69.5680847 161.6711426 82.5935516 163 191 220
-69.7708740 161.6800079 82.1431885 163 191 220
-69.9736023 161.6889038 81.6927948 163 191 220
-70.1763916 161.6977844 81.2423859 163 191 220
-70.3791504 161.7066650 80.7919769 163 191 220
-70.5124817 161.7292480 80.3087921 163 191 220
-70.6323242 161.7545166 79.8190155 163 191 220
-70.7522278 161.7797852 79.3289642 163 191 220
-70.8721924 161.8050842 78.8386688 162 191 220
-70.9922180 161.8303833 78.3481903 162 191 220
-71.1122437 161.8557129 77.8574066 162 191 220
-71.2323914 161.8810425 77.3664093 162 191 220
-71.3525391 161.9064026 76.8751373 162 191 220
-71.4728088 161.9317627 76.3836212 162 191 220
-71.5931396 161.9571228 75.8918762 162 191 220
-71.7135010 161.9825134 75.3998718 162 191 220
-71.8339539 162.0079041 74.9076080 162 191 220
-71.9544678 162.0333099 74.4151154 162 191 220
-72.0749817 162.0587463 73.9223328 162 191 220
-72.1956177 162.0841827 73.4293060 162 191 220
-72.3163147 162.1096344 72.9360046 162 191 220
-72.4370422 162.1351013 72.4424438 162 191 220
-72.5578613 162.1605835 71.9486542 162 191 220
-72.6787720 162.1860657 71.4545593 162 192 221
-72.7996826 162.2115784 70.9602051 162 192 221
-72.9207153 162.2370911 70.4656067 162 192 221
-73.0418091 162.2626343 69.9707336 162 192 221
-73.1629028 162.2881775 69.4755707 162 192 221
-73.2841187 162.3137360 68.9801331 161 192 221
-73.4053955 162.3393250 68.4844360 161 192 221
-73.5236206 162.3655396 67.9868622 161 192 221
-73.6417542 162.3917847 67.4889221 161 192 221
-73.7599182 162.4180908 66.9906769 161 192 221
-73.8782349 162.4443665 66.4922028 161 192 221
-73.9965210 162.4706726 65.9933624 161 192 221
-74.1149292 162.4970093 65.4942627 161 192 221
-74.2333984 162.5233459 64.9948730 161 192 221
-74.3519287 162.5497131 64.4951782 161 192 221
-74.4706116 162.5760803 63.9951935 161 192 221
-74.4719238 162.6261292 63.4336243 161 192 221
-74.4614258 162.6786652 62.8651581 161 192 221
-74.4508972 162.7312622 62.2959290 161 192 221
-74.4403687 162.7839355 61.7259521 160 192 221
-74.4298401 162.8366699 61.1552582 160 192 221
-74.4192200 162.8894806 60.5837708 160 192 221
-74.4086914 162.9423523 60.0115662 160 193 221
-74.3981018 162.9953003 59.4385834 160 193 221
-74.3875427 163.0482941 58.8648682 160 193 221
-74.3768921 163.1013794 58.2903442 160 193 221
-74.3662720 163.1545410 57.7150726 160 193 221
-74.3556213 163.2077637 57.1390381 159 193 221
-74.3449707 163.2610779 56.5622253 159 193 221
-74.3342896 163.3144226 55.9846344 159 193 221
-74.3236084 163.3678741 55.4062500 159 193 221
-74.3128967 163.4214020 54.8270569 159 193 221
-74.3022156 163.4749756 54.2471619 159 193 221
-74.2914734 163.5286407 53.6663971 159 193 221
-74.2807007 163.5823975 53.0848541 159 193 221
-74.2699585 163.6361847 52.5025482 158 193 221
-74.2591553 163.6900635 51.9194031 158 194 222
-74.2483826 163.7440186 51.3354645 158 194 222
-74.2376099 163.7980652 50.7507172 158 194 222
-74.2267761 163.8521576 50.1651917 158 194 222
-74.2159424 163.9063416 49.5788422 158 194 222
-74.2051086 163.9606018 48.9916534 158 194 222
-74.1942139 164.0149231 48.4036407 157 194 222
-74.1833496 164.0693359 47.8148193 157 194 222
-74.1724548 164.1238251 47.2251434 157 194 222
-74.1615601 164.1783752 46.6346741 157 194 222
-74.1506348 164.2330170 46.0433502 157 194 222
-74.1396484 164.2877502 45.4511871 157 194 222
-74.1287231 164.3425293 44.8582001 157 195 222
-74.1177673 164.3973999 44.2643585 156 195 222
-74.1067505 164.4523621 43.6696472 156 195 222
-74.0957642 164.5073853 43.0741119 156 195 222
-74.0847473 164.5624847 42.4777374 156 195 222
-74.0737000 164.6176758 41.8804626 156 195 222
-74.0620728 164.6730652 41.2820129 156 195 222
-74.0481873 164.7290039 40.6813965 156 195 222
-74.0343018 164.7850037 40.0799103 156 195 222
-74.0204163 164.8410950 39.4775238 155 195 222
-74.0065002 164.8972626 38.8742523 155 195 222
-73.9925232 164.9535217 38.2700958 155 195 222
-73.9176331 165.0225372 37.6290131 155 196 223
-73.7776794 165.1051941 36.9483185 155 196 223
-73.6373901 165.1880341 36.2661285 154 196 223
-73.4967651 165.2710571 35.5824280 154 196 223
-73.3558960 165.3542480 34.8972931 154 196 223
-73.2146606 165.4376221 34.2105865 154 196 223
-73.0731812 165.5211792 33.5224609 154 196 223
-72.9313049 165.6049347 32.8327179 153 196 223
-72.7891846 165.6888733 32.1415100 153 197 223
-72.6467285 165.7729797 31.4488068 153 197 223
-72.5039368 165.8572998 30.7545166 153 197 223
-72.3608398 165.9417725 30.0587311 153 197 223
-72.2174683 166.0264587 29.3613892 152 197 223
-72.0737305 166.1113281 28.6624603 152 197 223
-71.9296875 166.1963806 27.9620056 152 197 223
-71.7853394 166.2816162 27.2599487 152 197 223
-71.6406250 166.3670654 26.5563202 151 198 224
-71.4956360 166.4526825 25.8511810 151 198 224
-71.3502808 166.5385132 25.1443634 151 198 224
-71.2045898 166.6245422 24.4359741 151 198 224
-71.0586243 166.7107239 23.7259979 151 198 224
-70.9122314 166.7971497 23.0143738 150 198 224
-70.7655945 166.8837585 22.3011475 150 198 224
-70.6185913 166.9705505 21.5863190 150 198 224
-70.4712830 167.0575562 20.8698120 150 199 224
-70.3235779 167.1447601 20.1516571 149 199 224
-70.1641235 167.2345886 19.4246063 149 199 224
-69.9953003 167.3265076 18.6901703 149 199 224
-69.8260803 167.4186859 17.9539337 149 199 224
-69.6564331 167.5110779 17.2158813 148 199 224
-69.4863586 167.6036987 16.4760437 148 199 224
-69.2307739 167.7146301 15.6797791 148 200 225
-68.8029480 167.8623657 14.7708435 148 200 225
-68.3688965 168.0116272 13.8554230 147 200 225
-67.9331360 168.1614838 12.9364624 147 200 225
-67.4957275 168.3119202 12.0139618 146 201 225
-67.0566711 168.4629211 11.0879364 146 201 225
-66.6158142 168.6145325 10.1582336 146 201 225
-66.1733398 168.7666931 9.2250061 145 201 225
-65.7290344 168.9194946 8.2880249 145 201 225
-65.2830200 169.0728760 7.3474121 144 202 226
-64.8352356 169.2268829 6.4030762 144 202 226
-64.3857117 169.3814697 5.4550323 144 202 226
-63.9344482 169.5366821 4.5032806 143 202 226
-63.4813232 169.6925049 3.5476990 143 203 226
-63.0264587 169.8489380 2.5884247 142 203 226
-62.5697937 170.0059814 1.6252441 142 203 226
-62.1112061 170.1636963 0.6581726 141 203 226
-61.6508179 170.3220215 -0.3127441 141 204 227
-61.1886292 170.4809875 -1.2875061 141 204 227
-60.7246094 170.6405640 -2.2661438 140 204 227
-59.6235657 170.9377441 -3.6782837 139 205 227
-58.3815613 171.2658081 -5.1908875 139 205 227
-57.1366272 171.5949554 -6.7108765 138 206 228
-55.8820496 171.9266968 -8.2429199 137 206 228
-54.6173706 172.2610931 -9.7872925 136 207 228
-53.3422546 172.5982513 -11.3443909 135 207 228
-52.0567017 172.9381714 -12.9142456 134 208 229
-50.7605591 173.2808838 -14.4970398 133 208 229
-45.7250061 174.4351196 -18.6665039 130 210 230
-40.3851929 175.6571045 -23.0654602 127 212 231
3.4864197 182.4516296 125.2285309 138 206 228
-1.0656433 181.5512695 125.9897614 140 204 227
-2.8838501 181.2272034 125.9524994 140 204 227
-4.6884460 180.9055481 125.9155121 141 204 227
-6.4795532 180.5863037 125.8787537 142 203 226
-8.2575684 180.2693787 125.8423004 143 203 226
-10.0223694 179.9548340 125.8061218 143 202 226
-11.7770691 179.6419830 125.7710419 144 202 226
-13.4785461 179.3399658 125.7239685 145 201 225
-14.4534302 179.1917114 125.4590454 145 201 225
-15.4247131 179.0440063 125.1951294 146 201 225
-16.3922729 178.8968658 124.9322205 146 201 225
-17.3561096 178.7502747 124.6702728 147 200 225
-18.3164368 178.6042480 124.4093323 147 200 225
-19.2731323 178.4587402 124.1493530 147 200 225
-20.2262268 178.3138123 123.8903656 148 200 225
-21.1758423 178.1694031 123.6323242 148 200 225
-22.1224365 178.0254059 123.3754272 148 199 224
-23.0675964 177.8815002 123.1201630 149 199 224
-24.0092773 177.7381287 122.8658142 149 199 224
-24.9474182 177.5953064 122.6124268 150 199 224
-25.8821411 177.4529877 122.3599701 150 198 224
-26.7776794 177.3188477 122.0969086 150 198 224
-27.4058228 177.2417603 121.7492371 150 198 224
-28.0325012 177.1648560 121.4023132 151 198 224
-28.6578674 177.0881042 121.0561676 151 198 224
-29.2817688 177.0115204 120.7108154 151 198 224
-29.9043579 176.9351196 120.3662262 151 198 224
-30.5255737 176.8588867 120.0223846 152 197 223
-31.1453552 176.7828064 119.6792908 152 197 223
-31.7638245 176.7069092 119.3369598 152 197 223
-32.3808594 176.6311646 118.9954071 152 197 223
-32.9966431 176.5556030 118.6545563 152 197 223
-33.6115112 176.4801025 118.3146362 153 197 223
-34.2265320 176.4044189 117.9759674 153 197 223
-34.8402100 176.3289185 117.6380310 153 197 223
-35.4525757 176.2535858 117.3008270 153 196 223
-36.0635681 176.1784058 116.9643555 153 196 223
-36.6731873 176.1034241 116.6286011 154 196 223
-37.2815552 176.0285645 116.2935791 154 196 223
-37.8886108 175.9538879 115.9593048 154 196 223
-38.4943848 175.8793640 115.6257324 154 196 223
-39.0987854 175.8050079 115.2928467 155 196 223
-39.5521240 175.7632904 114.9082184 155 196 223
-39.9846802 175.7260132 114.5170441 155 196 223
-40.4167175 175.6887512 114.1264038 155 196 223
-40.8481140 175.6515808 113.7362518 155 195 222
-41.2790833 175.6144104 113.3466034 155 195 222
-41.7093506 175.5773315 112.9574432 155 195 222
-42.1391907 175.5402679 112.5688171 155 195 222
-42.5683899 175.5032806 112.1806488 156 195 222
-42.9971008 175.4663086 111.7929840 156 195 222
-43.4252930 175.4294128 111.4058380 156 195 222
-43.8528748 175.3925476 111.0191498 156 195 222
-44.2799683 175.3557281 110.6329651 156 195 222
-44.7076721 175.3186951 110.2477112 156 195 222
-45.1351318 175.2816467 109.8630371 156 195 222
-45.5620422 175.2446594 109.4788361 156 195 222
-45.9884644 175.2077026 109.0951080 156 195 222
-46.4143372 175.1708069 108.7118835 157 195 222
-46.8396606 175.1339417 108.3291473 157 194 222
-47.2644653 175.0971375 107.9468842 157 194 222
-47.6886902 175.0603638 107.5650787 157 194 222
-48.1124268 175.0236511 107.1837463 157 194 222
-48.5357056 174.9869690 106.8029022 157 194 222
-48.9583740 174.9503479 106.4225006 157 194 222
-49.3805542 174.9137421 106.0425873 157 194 222
-49.8022156 174.8771973 105.6631470 158 194 222
-50.2092896 174.8438110 105.2787323 158 194 222
-50.5116577 174.8334351 104.8545990 158 194 222
-50.8138123 174.8230896 104.4306793 158 194 222
-51.1157837 174.8127289 104.0070648 158 194 222
-51.4176331 174.8023682 103.5836945 158 194 222
-51.7192383 174.7920380 103.1605835 158 194 222
-52.0206909 174.7817078 102.7377319 158 194 222
-52.3219910 174.7713623 102.3151245 158 194 222
-52.6230469 174.7610474 101.8927765 158 194 222
-52.9239807 174.7507324 101.4706726 158 194 222
-53.2247009 174.7404175 101.0487976 158 194 222
-53.5252380 174.7301025 100.6272125 158 194 222
-53.8256226 174.7198181 100.2058258 158 194 222
-54.1260681 174.7094727 99.7848053 158 193 221
-54.4271240 174.6989441 99.3643494 158 193 221
-54.7279968 174.6884308 98.9441376 158 193 221
-55.0287476 174.6779175 98.5241547 159 193 221
-55.3292847 174.6674194 98.1044312 159 193 221
-55.6295776 174.6569519 97.6849213 159 193 221
-55.9298096 174.6464539 97.2656708 159 193 221
-56.2298279 174.6359711 96.8466492 159 193 221
-56.5296936 174.6255035 96.4278564 159 193 221
-56.8294067 174.6150208 96.0093231 159 193 221
-57.1289368 174.6045532 95.5910034 159 193 221
-57.4282837 174.5940857 95.1729126 159 193 221
-57.7274780 174.5836487 94.7550507 159 193 221
-58.0264893 174.5732117 94.3374023 159 193 221
-58.3253479 174.5627747 93.9200134 159 193 221
-58.6240845 174.5523376 93.5028534 159 193 221
-58.9226379 174.5419006 93.0858765 159 193 221
-59.1884155 174.5388031 92.6552734 159 193 221
-59.3907471 174.5499573 92.1977539 159 193 221
-59.5931396 174.5610962 91.7402649 159 193 221
-59.7954712 174.5722351 91.2827759 159 193 221
-59.9977722 174.5833893 90.8253021 159 193 221
-60.2001038 174.5945282 90.3678436 159 193 221
-60.4024048 174.6056824 89.9103851 159 193 221
-60.6047668 174.6168213 89.4529419 159 193 221
-60.8071289 174.6279602 88.9954987 159 193 221
-61.0093994 174.6390991 88.5380707 159 193 221
-61.2117004 174.6502686 88.0806122 159 193 221
-61.4140320 174.6614075 87.6231842 159 193 221
-61.6163635 174.6725464 87.1657562 159 193 221
-61.8186646 174.6836853 86.7083282 159 193 221
-62.0213928 174.6947327 86.2510986 159 193 221
-62.2243652 174.7057190 85.7939453 159 193 221
-62.4273376 174.7167206 85.3368225 159 193 221
-62.6303406 174.7277222 84.8796844 159 193 221
-62.8333130 174.7387085 84.4225311 159 193 221
-63.0362854 174.7497101 83.9653625 159 193 221
-63.2392578 174.7607117 83.5081940 159 193 221
-63.4422607 174.7716980 83.0510254 159 193 221
-63.6452942 174.7826843 82.5938568 159 193 221
-63.8482361 174.7936859 82.1366425 159 193 221
-64.0512390 174.8046875 81.6794281 159 193 221
-64.2542725 174.8156738 81.2222290 159 193 221
-64.4573364 174.8266602 80.7649994 159 193 221
-64.6603699 174.8376617 80.3077698 159 193 221
-64.8633728 174.8486633 79.8504791 159 193 221
-65.0664368 174.8596649 79.3931885 159 193 221
-65.2695007 174.8706665 78.9358521 159 193 221
-65.4725647 174.8816681 78.4785309 159 193 221
-65.6156921 174.9064178 77.9928894 159 193 221
-65.7309875 174.9375916 77.4938965 159 193 221
-65.8463745 174.9687805 76.9946442 159 193 221
-65.9617920 174.9999695 76.4951172 159 193 221
-66.0772095 175.0311890 75.9953156 159 193 221
-66.1927795 175.0624390 75.4952850 159 193 221
-66.3084106 175.0936737 74.9949799 159 193 221
-66.4240723 175.1249390 74.4944000 159 193 221
-66.5397949 175.1562195 73.9935455 159 193 221
-66.6555481 175.1875305 73.4924164 159 193 221
-66.7714233 175.2188416 72.9910278 159 193 221
-66.8873596 175.2501831 72.4893494 159 193 221
-67.0033264 175.2815399 71.9873962 159 193 221
-67.1193542 175.3128967 71.4851837 158 193 221
-67.2354736 175.3442993 70.9826660 158 193 221
-67.3512268 175.3757935 70.4796906 158 194 222
-67.4670105 175.4073181 69.9763947 158 194 222
-67.5828857 175.4388580 69.4728394 158 194 222
-67.6987915 175.4704285 68.9689636 158 194 222
-67.8148193 175.5019989 68.4648132 158 194 222
-67.9308777 175.5335999 67.9603729 158 194 222
-68.0470276 175.5652161 67.4556732 158 194 222
-68.1632385 175.5968323 66.9506531 158 194 222
-68.2795410 175.6284790 66.4453430 158 194 222
-68.3958740 175.6601562 65.9397278 158 194 222
-68.5122681 175.6918488 65.4338074 158 194 222
-68.6287537 175.7235565 64.9275970 158 194 222
-68.7453003 175.7552795 64.4210510 158 194 222
-68.8619080 175.7870178 63.9142456 158 194 222
-68.9786377 175.8187866 63.4071350 158 194 222
-69.0953369 175.8505859 62.8996887 157 194 222
-69.1061401 175.9072266 62.3370514 157 194 222
-69.0866699 175.9710388 61.7580261 157 194 222
-69.0671997 176.0349274 61.1782379 157 194 222
-69.0476990 176.0989075 60.5976715 157 194 222
-69.0281982 176.1629639 60.0163574 157 194 222
-69.0086365 176.2271118 59.4342041 157 194 222
-68.9890747 176.2913513 58.8512878 157 195 222
